# .PCD v0.7 - Point Cloud Data file format
VERSION 0.7
FIELDS x y z
SIZE 4 4 4
TYPE F F F
COUNT 1 1 1
WIDTH 549
HEIGHT 1
VIEWPOINT 0 0 0 1 0 0 0
POINTS 549
DATA ascii
326.59488 217.06378 -265.80167
-14.078308 -312.5202 -227.90926
9.3974953 -340.87543 -228.16774
-39.277565 -287.48996 -227.70616
-17.697819 -284.75488 -228.32669
5.7422147 -275.99365 -228.03342
-0.95677322 -265.01508 -227.53044
-10.809917 143.42859 -233.4267
10.962934 143.15466 -233.71504
294.46368 148.02875 -229.24219
305.68002 149.5694 -229.4268
-11.681092 172.77747 -236.92715
12.387426 173.16002 -238.98814
263.05881 182.06668 -230.95435
288.20416 170.11264 -238.66734
319.89966 174.79475 -239.45058
342.89801 188.32118 -229.21489
-319.81668 220.20476 -230.69543
-299.78345 223.53246 -228.58627
-9.6133881 205.42334 -239.56052
13.429097 205.90376 -242.68933
261.84402 226.12996 -230.64209
290.00699 196.64606 -247.79231
326.38745 205.06973 -257.26144
351.1387 211.63588 -242.1832
-345.8476 252.42528 -232.53064
-328.66061 243.04701 -237.61015
-299.96497 229.67958 -229.81456
-40.871918 243.1203 -229.08807
-19.431673 245.80505 -233.75842
17.022842 248.22394 -234.81723
38.706028 254.31404 -228.01848
260.23358 229.48138 -232.43394
266.04456 230.93933 -235.16457
330.85663 237.79118 -261.53165
352.6037 240.14334 -246.67459
-346.49634 273.97049 -232.25294
-336.81781 272.53674 -236.84795
-14.672566 274.71295 -229.99083
12.950615 274.81439 -229.96175
57.838482 -380.3649 -205.25401
94.545807 -379.91342 -192.20769
-17.219587 -341.63763 -225.35538
20.402742 -341.38882 -223.23474
62.257065 -358.08719 -205.90192
85.915016 -357.04568 -194.22762
-117.537 -309.40192 -192.48744
-95.327309 -309.47833 -206.35455
-54.310074 -320.10919 -221.60152
-19.529169 -323.66992 -225.81593
19.068138 -322.22623 -224.0065
57.901962 -322.698 -211.89926
85.579887 -321.03757 -196.05986
-119.49025 -282.56689 -194.65955
-95.532776 -285.1264 -209.51184
-57.637585 -285.1153 -223.00639
-23.907074 -284.09482 -226.64746
22.193922 -285.79907 -224.10776
57.544113 -285.09982 -214.39514
89.395874 -284.17755 -198.83031
-122.31447 -245.97951 -196.83308
-95.066742 -246.66434 -213.63579
-56.816185 -246.77554 -222.26425
-17.881365 -247.26112 -224.37595
19.240778 -245.86246 -224.38289
57.693008 -247.31197 -218.6302
93.162331 -246.48055 -201.76149
-123.75412 -209.07227 -196.74281
-95.209381 -209.17978 -211.73384
-57.289337 -208.92183 -219.71112
-19.196924 -209.07578 -221.69975
19.278721 -208.5313 -222.21655
57.049088 -208.68434 -218.58627
95.351204 -209.14569 -203.34991
113.94229 -204.52686 -189.88962
-123.23 -171.32959 -196.4417
-95.218231 -170.62862 -208.83667
-57.441296 -171.08749 -216.00322
-18.877613 -170.26396 -218.3438
18.878817 -170.81195 -218.28664
57.064365 -171.06636 -213.76321
96.381104 -171.52031 -202.99194
115.7666 -162.28229 -192.80986
-122.79826 -132.4447 -195.6114
-95.324043 -133.06384 -206.84097
-56.976192 -133.50359 -212.24055
-18.378717 -133.5507 -213.14279
18.996246 -132.48582 -213.17479
57.312042 -132.85498 -209.81169
95.063133 -132.99304 -198.80806
120.24048 -131.46986 -193.6779
-124.01253 -95.050179 -195.39078
-95.203598 -95.211662 -205.54639
-56.135429 -94.77459 -209.22044
-18.552193 -95.312798 -206.31947
18.842701 -94.829903 -206.99445
57.358307 -95.32695 -206.00665
92.476112 -95.350189 -197.13206
125.79081 -108.3255 -190.67696
-124.1722 -57.876511 -195.47572
-95.121986 -57.083721 -200.87268
-56.614719 -56.737591 -207.97707
-19.584637 -56.795902 -201.1738
19.0889 -56.649525 -198.94452
56.832661 -56.440147 -201.50571
89.537514 -57.771275 -196.52368
-131.22377 -34.011143 -190.6653
-90.638519 -25.684938 -194.24391
-54.982677 -20.319519 -199.68095
-21.280798 -18.103258 -198.62912
22.863079 -30.494478 -192.04964
55.90123 -26.749172 -193.0905
88.64003 -26.043352 -193.16228
-46.979855 15.5001 -195.66805
-21.29612 12.446063 -199.86119
4.9019651 13.251364 -193.16443
-12.11283 109.81974 -206.11226
10.730159 110.00445 -205.58739
226.38139 108.23736 -190.72762
249.35327 100.59734 -194.92645
278.77115 102.37796 -198.96825
-306.1554 148.33856 -191.78374
-284.34781 144.66156 -193.16928
-258.48462 147.13268 -191.45892
-48.103893 139.03671 -201.70857
-23.523251 127.79905 -216.95908
22.773111 130.37357 -212.96118
43.076534 143.99121 -197.74321
224.90063 131.29924 -192.7581
247.48367 132.60492 -205.1582
286.53137 130.41652 -213.93954
311.16785 141.97011 -206.24113
-317.37082 174.96062 -201.87131
-284.34857 170.85411 -205.45807
-255.34459 170.18712 -194.32449
-76.750435 182.14218 -191.7977
-57.601299 170.61189 -209.39383
-30.912334 169.09596 -224.73778
30.030622 168.25392 -220.86339
51.458977 171.8289 -204.69576
227.30133 156.84029 -190.95718
251.13553 166.53975 -213.54355
268.69479 152.75668 -226.53705
329.63135 166.0576 -209.72731
344.07437 184.74095 -209.31128
-348.64581 216.37872 -203.5565
-326.93613 202.91527 -215.38708
-283.86469 205.49374 -216.66251
-258.56192 203.1113 -196.8065
-76.296738 196.88628 -191.25757
-57.828091 209.44797 -209.43073
-27.028145 212.60793 -223.83759
27.889984 211.07861 -220.44223
53.211731 208.57768 -205.70703
255.38766 216.90054 -216.27264
266.28204 225.7917 -225.08594
354.70865 206.95236 -211.06532
-358.33215 245.9081 -210.50996
-340.82727 229.07564 -226.84717
-277.24759 247.00348 -209.53081
-260.92151 246.81491 -195.42848
-57.285973 245.75183 -210.2572
-19.825253 233.86906 -225.41411
28.159691 237.78311 -223.26952
53.130798 245.73843 -209.91728
226.48628 258.73663 -190.10736
244.05101 247.37076 -205.68259
359.76675 233.80896 -209.54109
-358.22702 270.99405 -212.76172
-269.70126 275.01935 -203.64496
-258.99103 276.508 -194.85437
-51.831558 279.94159 -205.21272
-27.391663 288.11813 -221.28334
26.588484 281.04376 -223.72099
54.031971 276.37183 -206.45358
224.99142 281.07358 -191.54216
238.42592 273.00607 -201.99071
-39.838997 304.74023 -204.05693
-27.320669 307.28479 -210.84547
98.258965 -382.76685 -182.7226
124.74794 -381.0928 -165.74039
105.55121 -358.78452 -181.07582
123.03088 -355.20166 -164.01344
-158.1315 -312.65497 -157.63353
-136.45126 -311.32474 -175.41689
103.6106 -322.8121 -182.24211
125.58455 -322.61212 -166.1284
-157.96452 -285.07858 -157.32388
-138.25723 -285.39337 -176.10017
107.63513 -286.9776 -184.44632
127.21962 -283.92343 -166.45668
-157.92108 -246.27351 -159.02339
-140.88708 -247.54741 -177.86441
111.14808 -249.59195 -186.9187
128.38573 -246.72218 -168.92191
-159.5778 -207.68602 -162.82939
-142.50426 -209.75867 -181.48615
113.18121 -218.1442 -188.96303
130.53395 -208.51497 -170.93402
-163.61536 -170.85353 -164.6996
-141.19942 -169.79025 -180.48705
133.6196 -170.80782 -171.32001
152.19322 -157.44753 -152.62799
-165.68927 -132.23816 -162.23694
-142.40759 -132.90991 -179.38661
111.57819 -117.55591 -188.64928
137.29837 -133.56505 -172.31412
154.44286 -129.52202 -154.35106
-166.45203 -95.124184 -159.27879
-142.73167 -94.695564 -180.81967
110.52952 -91.980736 -187.37822
134.80806 -94.287109 -177.77177
156.65872 -94.085312 -156.39575
-167.34727 -58.165901 -157.53412
-140.42525 -56.758579 -179.02272
5.6558437 -39.898987 -189.33936
107.79926 -54.944725 -184.1689
134.35352 -57.995819 -176.01103
158.63992 -55.706238 -158.44241
-161.85387 -21.599482 -157.02362
-137.77069 -20.263176 -175.19699
-99.253014 -12.47366 -184.64761
-69.5373 -5.7655277 -186.94087
-4.5499945 -19.52322 -187.62263
16.317207 -13.587574 -184.25388
57.858616 -9.2127876 -186.29689
101.00155 -15.424882 -180.15318
133.21838 -21.959839 -170.3396
159.74544 -19.318579 -160.90723
-156.72171 17.926437 -154.07736
-134.09554 19.605705 -165.15939
-94.00573 18.43701 -174.519
-63.297371 21.257519 -184.12271
-28.57716 30.348711 -182.52327
21.171749 19.755226 -180.09502
57.081425 18.439318 -180.38954
97.623451 18.925901 -172.37878
131.75763 21.185326 -161.70325
161.45909 18.929163 -161.20312
214.18115 30.382448 -154.81573
236.05281 31.421965 -157.08873
-270.33981 71.578178 -154.96333
-247.52168 66.90863 -155.866
-155.33383 38.878395 -152.16934
-128.83221 47.39246 -156.9202
-84.185051 50.304401 -159.21034
-58.05088 53.348896 -169.52637
-19.065815 61.580849 -159.5699
22.66221 55.054443 -167.72772
53.47242 54.815899 -167.20514
97.87281 50.662769 -160.45357
133.27077 51.042519 -155.77917
167.94394 56.856869 -156.45042
210.32146 57.50951 -160.77995
247.71648 58.323685 -170.72452
268.12225 71.664444 -166.38805
-281.48672 97.790634 -165.28824
-244.20685 95.144905 -164.54103
-223.55179 100.40361 -155.20335
-77.036102 76.555107 -152.69168
-43.672928 101.24641 -154.70781
-19.311102 98.327652 -166.8015
13.88842 100.26882 -165.49559
51.965324 76.724411 -152.82285
180.96159 93.005272 -153.90756
208.75041 94.562668 -168.85555
240.57747 83.528397 -184.53691
282.72278 94.806465 -171.22188
-310.39243 139.39107 -168.68628
-287.66574 124.97173 -179.54208
-245.23608 131.06197 -177.36378
-222.41992 133.86813 -160.09573
-56.571213 132.71385 -170.49054
-34.04377 116.02914 -181.55327
32.081764 119.39458 -173.62035
48.289051 138.50046 -170.04044
187.61958 121.09665 -154.24095
206.4267 131.34955 -169.16187
299.49255 119.18108 -171.47556
311.85648 137.20547 -171.76523
-327.32486 170.25244 -171.85909
-239.43153 164.52821 -178.66196
-224.63223 159.33688 -164.72809
-81.273018 172.83691 -169.52393
-73.310593 156.73239 -178.8325
66.376106 169.16318 -171.55402
76.05545 188.85669 -154.15619
210.46889 159.78587 -163.13612
327.27975 165.92477 -175.5909
342.53217 186.64754 -186.45615
-347.5054 210.47301 -179.12297
-337.52435 198.76764 -165.24545
-250.30345 209.02905 -185.35121
-81.943794 209.00128 -170.70163
-75.205772 217.88416 -188.83226
72.122482 209.99236 -173.85103
76.607849 202.81633 -157.31165
247.65218 225.50464 -178.12303
339.18005 194.87698 -172.0284
344.76514 203.25533 -181.63593
-354.31238 243.46324 -175.10289
-338.492 232.68091 -154.53537
-246.08675 254.49879 -172.98088
-226.60384 264.11334 -153.91525
-81.359543 245.96619 -166.3325
-73.641754 251.47849 -184.97937
70.444885 246.84839 -171.09244
76.581444 263.24173 -153.42798
218.42786 255.81621 -168.5257
236.22461 241.2673 -175.98088
349.24945 228.36603 -187.6348
-361.58093 267.69568 -186.76343
-239.75508 278.75449 -175.38898
-220.76831 284.43753 -158.5473
-83.076729 267.89648 -167.71786
-71.955261 272.56567 -181.35199
69.741226 272.66418 -172.29485
78.074608 273.45557 -155.133
187.2368 291.21585 -154.84258
207.46585 278.6738 -171.23161
187.58946 311.05493 -153.13414
191.28488 313.00403 -155.23421
143.9856 -350.64926 -136.43356
152.53212 -351.39435 -117.69897
-176.22932 -315.28543 -135.33128
143.34317 -323.06253 -138.00653
153.45659 -320.6886 -118.23361
-190.50923 -270.09415 -114.57313
-177.17435 -284.60715 -134.09206
145.2644 -285.68027 -139.7489
154.94713 -282.63562 -121.1343
-191.27769 -243.55603 -116.42514
-177.38524 -247.09796 -135.49922
146.48398 -248.21741 -143.66635
157.30116 -245.49019 -125.07407
-193.153 -206.86601 -118.45768
-178.52992 -209.45314 -137.36354
148.38661 -212.36096 -147.08542
160.80867 -207.7428 -128.68242
-196.10553 -170.01517 -120.00518
-180.2626 -171.60135 -139.44225
150.46605 -180.62129 -150.60291
165.94165 -170.13101 -131.41063
-200.36446 -132.14043 -122.01724
-182.55528 -133.81764 -141.69986
172.13635 -133.57475 -133.30011
190.94479 -121.49748 -117.41509
-203.9127 -94.279724 -124.9003
-184.28903 -95.70192 -144.60287
174.8412 -95.633377 -138.95586
193.60048 -92.589745 -122.45242
-205.7955 -56.199539 -128.80951
-174.05162 -55.530693 -148.5088
177.47424 -57.556316 -143.20418
197.87804 -55.362858 -126.88934
-232.54778 -10.464045 -119.80196
-207.49985 -19.701912 -132.48534
-172.39218 -17.776857 -147.83626
178.08638 -19.078081 -146.35207
206.3799 -16.798384 -131.87898
-243.99535 21.749422 -130.33351
-207.25839 19.631788 -137.17859
-172.55035 20.355869 -145.76057
-148.97139 37.05962 -151.45438
131.53055 32.923492 -149.37033
176.31198 19.825705 -146.99762
209.9024 13.85001 -143.79288
236.09584 23.569387 -134.16574
-272.36682 62.962818 -133.37845
-247.70146 49.800598 -142.57744
-207.04135 57.337929 -141.57632
-168.56148 56.624863 -142.30183
-135.98961 62.798565 -145.43382
-84.649437 63.49929 -142.14655
-62.541172 65.297173 -144.65912
49.229336 70.292519 -146.15402
96.693436 68.641739 -147.37201
133.3839 62.464817 -148.46802
173.93291 56.573624 -147.44815
192.84322 46.689243 -150.87157
254.35823 55.6576 -132.34987
267.38181 72.803757 -143.04892
-288.46567 94.67347 -132.86716
-231.71718 79.87149 -150.86357
-203.33188 93.945457 -143.61398
-168.1998 94.288139 -129.50603
-137.22517 89.121857 -129.74893
-87.283905 82.734612 -134.65096
-58.615231 97.366516 -138.24632
-37.256145 77.727928 -151.1779
30.969393 96.185303 -146.5937
50.636917 95.374847 -131.52084
105.15512 86.55291 -133.16621
131.3512 91.062462 -135.90889
167.69992 97.370003 -142.86713
262.6752 80.417603 -117.4844
278.34637 94.245316 -136.53397
-310.13403 137.3114 -138.03925
-299.90247 122.0606 -127.98157
-201.14197 132.14824 -138.79245
-188.20081 120.85777 -122.42433
-76.343727 150.67427 -140.00937
-67.29438 131.58424 -134.67766
35.808914 116.54758 -148.60152
51.683434 133.21457 -134.54074
141.37343 115.74409 -116.44189
178.28111 130.25516 -135.30873
192.99791 145.34482 -145.68877
296.81039 124.47076 -142.54297
304.65881 136.95917 -148.87724
-320.93115 165.82861 -141.60924
-209.2061 155.4922 -142.36539
-84.997169 173.00645 -134.9183
-72.870132 161.2997 -120.3853
68.233467 169.32384 -133.53305
78.274757 178.10516 -128.78238
188.96173 152.69281 -132.15852
198.52602 156.53358 -142.87994
309.69687 157.03186 -149.68179
-331.83734 217.2327 -147.25603
-87.10582 209.77748 -130.25491
-74.006317 195.15199 -127.93201
72.198471 211.48518 -132.02895
76.881699 208.72224 -138.95386
-335.06647 232.51756 -148.41652
-233.15134 258.49869 -140.72615
-223.54984 262.36288 -132.69554
-89.226585 239.85309 -138.9789
73.665001 238.66412 -138.69067
77.836021 249.8485 -133.7141
213.66194 256.27921 -136.51434
229.51358 246.29202 -148.51889
-207.74477 279.39828 -133.38226
-185.16148 292.67841 -119.49067
75.500603 267.83209 -151.26755
80.418266 274.1044 -136.73372
177.67191 289.15469 -130.70422
196.81004 271.84967 -132.9437
-200.04909 319.47723 -134.88441
-182.4944 318.3858 -120.23486
145.10994 329.11746 -117.31557
168.67856 313.26852 -133.62404
155.23895 -352.67328 -108.95296
157.82597 -321.26239 -106.68341
-190.44035 -269.14908 -113.69064
162.03886 -284.13477 -104.91348
-194.03896 -244.20987 -112.36803
168.46977 -246.4063 -103.85367
-202.38225 -204.43393 -108.82034
176.31395 -208.40555 -102.20425
-209.20877 -171.5247 -108.84675
182.07593 -171.18781 -98.89975
-215.86256 -132.27867 -108.49625
187.03336 -140.12582 -97.206985
190.55357 -124.87595 -103.71162
-219.78146 -94.809555 -105.22017
194.62965 -96.613762 -104.82413
-228.23494 -46.587196 -104.25151
-223.30801 -58.13879 -102.27666
184.61902 -56.191704 -82.467293
197.56216 -51.687817 -102.14163
-232.64337 -15.765107 -101.58067
-224.38011 -29.59392 -90.225136
188.72128 -36.530739 -78.794312
203.92224 -19.697786 -96.814423
-246.22583 18.006189 -101.47114
218.99663 14.404102 -96.585678
231.21126 29.68733 -106.33656
-269.23822 65.857224 -107.65494
-260.18674 48.707203 -103.35561
224.15152 45.421486 -81.346382
239.19225 58.192287 -96.917076
-280.62885 92.535294 -108.84175
-156.22696 111.69625 -110.70581
-133.87779 107.37927 -104.42004
-77.464821 106.88793 -98.657974
-73.245514 108.0142 -106.72028
60.831245 107.24136 -107.15193
106.20838 106.18465 -103.22673
135.0999 110.62709 -111.02483
248.83249 80.298103 -97.191414
-294.51007 123.82372 -111.99576
-160.95839 119.66222 -99.03315
-136.73859 114.36784 -89.123512
-76.756248 116.45741 -90.813873
-66.98513 134.30147 -95.654076
52.412601 134.15262 -95.63797
109.86653 114.90358 -94.173904
140.13264 121.22717 -99.4515
-81.75457 182.25963 -102.55143
-71.04052 166.91168 -93.550301
55.803982 168.51498 -93.940002
76.871567 181.96536 -106.01884
-98.045326 208.08733 -110.0498
69.225929 205.01567 -107.41698
78.327385 211.77792 -97.860855
-225.40115 264.98462 -112.95181
81.839378 231.02893 -104.37177
-206.62753 276.36148 -95.993935
-176.05998 291.31937 -93.776329
151.41801 302.94653 -88.897942
170.73451 292.00131 -101.46066
200.92883 277.30994 -102.94605
-164.13788 309.80743 -97.241035
-136.87459 323.57108 -81.455765
109.48792 336.94507 -78.374702
133.70891 321.9949 -95.721336
153.84532 306.12775 -101.35423
107.50368 355.14719 -86.28479
119.43246 351.78912 -92.660736
170.10928 -55.665421 -58.111313
181.82181 -30.280745 -63.262978
192.56133 -14.444314 -70.824348
223.18553 55.114674 -72.307617
229.37015 68.772919 -73.450211
233.1597 77.776062 -74.320267
-67.194901 142.39687 -62.925354
53.658298 143.09183 -66.078659
-68.36618 170.88522 -57.545574
53.502403 171.07211 -62.789276
-69.312592 203.09401 -52.788929
53.145008 203.19949 -58.668327
-68.382248 237.83362 -41.043739
-198.78305 285.79483 -69.402908
-171.01471 296.18298 -67.705498
-157.45901 305.06226 -60.738155
-132.55272 313.79419 -60.541294
-70.513924 329.09613 -49.455322
47.827763 333.23581 -53.462379
106.66972 329.88168 -66.267799
122.07526 321.15695 -70.436264
-83.881119 353.9733 -58.292992
-70.51284 351.70264 -56.840149
46.937557 343.5824 -54.435173
102.94636 343.23868 -74.832977
-14.014307 409.90955 -49.928352
10.709568 411.92102 -47.611038
-23.304676 420.37485 -48.423283
20.700972 417.77518 -48.263222
150.39223 -66.035088 -32.26981
155.50662 -54.222836 -34.668407
161.05273 -36.195152 -34.861267
-66.841827 167.88568 -35.193436
-67.83036 190.84613 -37.591145
-68.490173 242.24144 -36.293285
-70.103798 333.24808 -36.829365
-3.4450345 401.69937 -32.915363
7.1769958 406.5585 -27.487175
25.44072 417.50345 -37.564968
